691589.366332,5366218.87402,493.406659813
691589.246770,5366221.37110,493.403848921
691589.131147,5366223.86832,493.400337499
691589.029565,5366226.36621,493.398588964
691588.922228,5366228.86386,493.400747759
691588.822387,5366231.36182,493.396391507
691588.710118,5366233.85929,493.394960287
691588.603698,5366236.35691,493.392768482
691588.527850,5366238.85521,493.394332328
691588.388144,5366241.35129,493.392861683
691588.272438,5366243.84859,493.388720531
691588.168002,5366246.34640,493.387536950
691588.058125,5366248.84396,493.383848000
691587.948091,5366251.34153,493.381450096
691587.839686,5366253.83913,493.377614334
691587.731128,5366256.33666,493.371043866
691587.616883,5366258.83398,493.366802807
691587.505893,5366261.33141,493.363538827
691587.410165,5366263.82954,493.359839869
691587.307125,5366266.32738,493.356150100
691587.193369,5366268.82477,493.352604566
691587.038753,5366271.31982,493.351617174
691586.897692,5366273.81584,493.350955406
691586.860589,5366276.31541,493.344781074
691586.753370,5366278.81255,493.340917750
691586.634677,5366281.30969,493.338354947
691586.532899,5366283.80761,493.338766573
691586.429167,5366286.30534,493.336650011
691586.331438,5366288.80338,493.333684429
691586.217739,5366291.30078,493.331401895
691586.099708,5366293.79798,493.327922922
691586.003332,5366296.29601,493.323482786
691585.891557,5366298.79343,493.321287225
691585.796224,5366301.29156,493.315840903
691585.678561,5366303.78871,493.317186079
691585.568584,5366306.28624,493.313209465
691585.457938,5366308.78377,493.309493477
691585.348719,5366311.28138,493.307105424
691585.237087,5366313.77888,493.303072861
691585.114188,5366316.27576,493.301688616
691585.007087,5366318.77347,493.301173570
691584.910018,5366321.27154,493.299156009
691584.790210,5366323.76862,493.296904955
691584.676398,5366326.26596,493.294332099
691584.562818,5366328.76335,493.291428536
691584.464968,5366331.26137,493.289509118
691584.342648,5366333.75838,493.287707193
691584.239424,5366336.25622,493.283445019
691584.135482,5366338.75406,493.279737438
691584.026831,5366341.25167,493.275052724
691583.921742,5366343.74945,493.271811884
691583.808497,5366346.24685,493.269668853
691583.695408,5366348.74421,493.266916965
691583.592698,5366351.24202,493.263381940
691583.493402,5366353.74005,493.261998755
691583.375997,5366356.23721,493.259427907
691583.261189,5366358.73457,493.256356878
691583.150648,5366361.23210,493.253570956
691583.043600,5366363.72980,493.250606952
691582.933437,5366366.22737,493.247946328
691582.815538,5366368.72454,493.245518587
691582.704327,5366371.22206,493.240987935
691582.606304,5366373.72011,493.239408230
691582.501887,5366376.21792,493.235840399
691582.384009,5366378.71512,493.229920119
691582.264558,5366381.21224,493.227493082
691582.161611,5366383.71010,493.224914886
691582.063273,5366386.20813,493.219994993
691581.942636,5366388.70520,493.222350717
691581.826983,5366391.20250,493.219674776
691581.705022,5366393.69948,493.216648258
691581.606089,5366396.19746,493.207212199
691581.500604,5366398.69521,493.202201761
691581.403059,5366401.19320,493.198386015
691581.294618,5366403.69084,493.194518547
691581.179326,5366406.18817,493.191159543
691581.084513,5366408.68634,493.186576840
691580.990663,5366411.18458,493.188136091
691580.859926,5366413.68106,493.185442539
691580.746784,5366416.17847,493.184022492
691580.641065,5366418.67623,493.181336403
691580.517178,5366421.17315,493.182763125
691580.408816,5366423.67079,493.180494015
691580.298692,5366426.16831,493.177853649
691580.188996,5366428.66589,493.173604675
691580.082664,5366431.16357,493.168703528
691579.975538,5366433.66126,493.163930452
691579.858929,5366436.15852,493.161202126
691579.758873,5366438.65650,493.157894345
691579.638179,5366441.15356,493.155438713
691579.542479,5366443.65171,493.152028397
691579.431179,5366446.14919,493.148160404
691579.323555,5366448.64680,493.141243324
691579.215107,5366451.14437,493.138707756
691579.106160,5366453.64198,493.136218956
691579.000087,5366456.13972,493.132770830
691578.903059,5366458.63778,493.129700900
691578.793060,5366461.13536,493.125979461
691578.688814,5366463.63316,493.122526795
691578.563659,5366466.13000,493.119710508
691578.451195,5366468.62743,493.118779611
691578.346567,5366471.12503,493.116765610
691578.242306,5366473.62283,493.113355008
691578.126669,5366476.12012,493.109412939
691578.020090,5366478.61778,493.106464880
691577.907006,5366481.11517,493.104079762
691577.811679,5366483.61329,493.100806415
691577.692551,5366486.11045,493.097311576
691577.579529,5366488.60788,493.094949716
691577.453669,5366491.10462,493.091314409
691577.359725,5366493.60280,493.084103952
691577.258549,5366496.10062,493.081108524
691577.139225,5366498.59766,493.078033586
691577.032996,5366501.09539,493.078655637
691576.921958,5366503.59291,493.076481129
691576.818158,5366506.09073,493.073513963
691576.706560,5366508.58822,493.069680105
691576.595901,5366511.08576,493.066899601
691576.485759,5366513.58332,493.065514147
691576.377790,5366516.08097,493.064372158
691576.263966,5366518.57837,493.060577430
691576.148129,5366521.07568,493.058493250
691576.034222,5366523.57309,493.056629262
691575.920316,5366526.07049,493.054765273
691575.833291,5366528.56890,493.049697244
691575.724157,5366531.06649,493.045653707
691575.629180,5366533.56463,493.040777362
691575.519948,5366536.06221,493.037634347
691575.406817,5366538.55963,493.035570843
691575.311701,5366541.05771,493.033567641
691575.204220,5366543.55537,493.030099882
691575.077713,5366546.05205,493.027379751
691574.979256,5366548.55011,493.025009708
691574.880799,5366551.04817,493.022639666
691574.746837,5366553.54371,493.018827694
691574.660477,5366556.04215,493.012774722
691574.529050,5366558.53840,493.010392387
691574.434148,5366561.03657,493.007891912
691574.327270,5366563.53426,493.006798743
691574.203400,5366566.03115,493.006040439
691574.104352,5366568.52911,493.001511086
691574.007974,5366571.02725,492.996444086
691573.886296,5366573.52422,492.994640951
691573.779497,5366576.02193,492.989843245
691573.677309,5366578.51973,492.987415652
691573.546219,5366581.01621,492.982726038
691573.445200,5366583.51404,492.979353927
691573.359330,5366586.01218,492.974113664
691573.247588,5366588.50969,492.972208542
691573.135846,5366591.00719,492.970303419
691573.024103,5366593.50469,492.968398297
691572.907759,5366596.00197,492.967183955
691572.782998,5366598.49875,492.965155655
691572.685317,5366600.99681,492.962039469
691572.575407,5366603.49434,492.959351756
691572.467271,5366605.99197,492.956735367
691572.361968,5366608.48974,492.951852625
691572.254156,5366610.98740,492.948740109
691572.145499,5366613.48503,492.944919327
691572.025737,5366615.98212,492.942298157
691571.916112,5366618.47970,492.937732328
691571.792187,5366620.97661,492.934066248
691571.689079,5366623.47445,492.931895537
691571.581726,5366625.97212,492.927486622
691571.474810,5366628.46982,492.924432145
691571.373361,5366630.96775,492.920552017
691571.264059,5366633.46533,492.917213252
691571.139652,5366635.96216,492.912430565
691571.046765,5366638.46033,492.908468619
691570.949917,5366640.95840,492.903990669
691570.828951,5366643.45541,492.901131660
691570.715411,5366645.95267,492.900559705
691570.609651,5366648.45041,492.896500648
691570.510172,5366650.94843,492.892850740
691570.398381,5366653.44591,492.889807329
691570.283762,5366655.94325,492.887448667
691570.191711,5366658.44152,492.885703252
691570.079582,5366660.93895,492.883605920
691569.979154,5366663.43692,492.878604212
691569.865623,5366665.93433,492.874536127
691569.746320,5366668.43141,492.869169866
691569.638461,5366670.92907,492.866481700
691569.531875,5366673.42673,492.863588378
691569.424723,5366675.92438,492.859136124
691569.322647,5366678.42220,492.853566886
691569.208880,5366680.91959,492.848161887
691569.108147,5366683.41753,492.842946456
691568.999110,5366685.91509,492.838038897
691568.894142,5366688.41287,492.833032097
691568.793703,5366690.91082,492.829108128
691568.687428,5366693.40852,492.826937258
691568.572082,5366695.90583,492.824768294
691568.471499,5366698.40378,492.820956189
691568.379705,5366700.90208,492.818535437
691568.239650,5366703.39721,492.816761419
691568.138888,5366705.89518,492.811817043
691568.040255,5366708.39320,492.808404244
691567.955045,5366710.89152,492.806461410
691567.846566,5366713.38914,492.803694039
691567.742732,5366715.88695,492.801665653
691567.639176,5366718.38480,492.801030564
691567.529856,5366720.88235,492.800650409
691567.413160,5366723.37959,492.798170289
691567.303663,5366725.87714,492.794550009
691567.198800,5366728.37492,492.792078288
691567.093713,5366730.87268,492.789354529
691566.981924,5366733.37014,492.785401544
691566.866557,5366735.86745,492.781299013
691566.752960,5366738.36484,492.777998519
691566.644707,5366740.86249,492.774427217
691566.535885,5366743.36010,492.770493878
691566.436585,5366745.85811,492.765273438
691566.334861,5366748.35599,492.760793263
691566.230718,5366750.85378,492.760959872
691566.116375,5366753.35082,492.760272254
691565.952273,5366755.84167,492.759496298
691565.878731,5366758.34059,492.755688738
691565.791307,5366760.83901,492.751279148
691565.676787,5366763.33638,492.749438784
691565.568452,5366765.83397,492.747763451
691565.465426,5366768.33174,492.742298143
691565.363276,5366770.82965,492.739605735
691565.250750,5366773.32707,492.737327723
691565.149101,5366775.82472,492.738007818
691565.045420,5366778.32249,492.735157495
691564.934382,5366780.81993,492.732687703
691564.834265,5366783.31781,492.730299614
691564.724142,5366785.81535,492.726958089
691564.621284,5366788.31319,492.724150943
691564.506864,5366790.81057,492.721966967
691564.393066,5366793.30798,492.719927444
691564.291153,5366795.80584,492.717269193
691564.177252,5366798.30312,492.711644864
691564.072207,5366800.80088,492.707579423
691563.967356,5366803.29861,492.704954473
691563.845943,5366805.79560,492.705604062
691563.730763,5366808.29294,492.704811379
691563.622023,5366810.79057,492.703091174
691563.506756,5366813.28789,492.702119415
691563.392667,5366815.78526,492.698453860
691563.279457,5366818.28269,492.694900745
691563.160245,5366820.77984,492.692275852
691563.055101,5366823.27757,492.690015800
691562.940260,5366825.77490,492.688775987
691562.828404,5366828.27239,492.686657764
691562.720154,5366830.77003,492.684168526
691562.609233,5366833.26755,492.682214821
691562.492763,5366835.76479,492.679833637
691562.376192,5366838.26207,492.678554490
691562.273345,5366840.75995,492.675301300
691562.160187,5366843.25735,492.671960891
691562.053154,5366845.75506,492.669275155
691561.929751,5366848.25199,492.663928870
691561.844923,5366850.75043,492.659728419
691561.732292,5366853.24769,492.655375399
691561.612646,5366855.74464,492.653835860
691561.482472,5366858.24113,492.651936644
691561.377504,5366860.73889,492.649263074
691561.266631,5366863.23630,492.646947683
691561.156441,5366865.73383,492.646263409
691561.059996,5366868.23193,492.640265999
691560.949145,5366870.72947,492.634461678
691560.834619,5366873.22678,492.628865849
691560.725431,5366875.72435,492.622746633
691560.610265,5366878.22168,492.616123782
691560.488830,5366880.71871,492.610214282
691560.377988,5366883.21624,492.604172642
691560.268461,5366885.71382,492.596190223
691560.157713,5366888.21129,492.588638127
691560.057334,5366890.70924,492.580304175
691559.944760,5366893.20668,492.571908269
691559.854738,5366895.70498,492.563586986
691559.731244,5366898.20188,492.554669176
691559.612345,5366900.69890,492.544729265
691559.515680,5366903.19691,492.531902233
691559.406781,5366905.69444,492.522049154
691559.301906,5366908.19217,492.510721530
691559.197699,5366910.68976,492.500514074
691559.090925,5366913.18744,492.488514767
691558.975351,5366915.68470,492.475181340
691558.881988,5366918.18284,492.463205273
691558.769260,5366920.68026,492.450587710
691558.667890,5366923.17816,492.437585864
691558.564571,5366925.67594,492.423535755
691558.424625,5366928.17192,492.405778345
691558.325532,5366930.66986,492.388802781
691558.239352,5366933.16819,492.370549050
691558.113429,5366935.66493,492.357693914
691558.008175,5366938.16262,492.343087488
691557.903370,5366940.66036,492.326798553
691557.800077,5366943.15812,492.311552679
691557.701545,5366945.65607,492.295986797
691557.596630,5366948.15379,492.279558458
691557.480316,5366950.65097,492.264251033
691557.378335,5366953.14880,492.247705904
691557.260073,5366955.64592,492.230850253
691557.160660,5366958.14387,492.212197416
691557.043982,5366960.64086,492.190924228
691556.951177,5366963.13903,492.168970863
691556.841887,5366965.63652,492.147898429
691556.730789,5366968.13395,492.127326706
691556.624248,5366970.63159,492.106565555
691556.515660,5366973.12913,492.084741180
691556.409387,5366975.62675,492.063378402
691556.307057,5366978.12450,492.041200532
