691587.488016,5366261.73101,493.363311602
691587.483547,5366261.83091,493.363254795
691587.479078,5366261.93081,493.363197989
691587.474608,5366262.03071,493.363141183
691587.470139,5366262.13061,493.363084376
691587.465670,5366262.23051,493.363027570
691587.461829,5366262.33044,493.362867776
691587.458463,5366262.43038,493.362629970
691587.455097,5366262.53032,493.362392163
691587.451732,5366262.63027,493.362154357
691587.448366,5366262.73021,493.361916551
691587.445000,5366262.83015,493.361678745
691587.441634,5366262.93010,493.361440939
691587.438269,5366263.03004,493.361203133
691587.434903,5366263.12998,493.360965327
691587.431537,5366263.22993,493.360727521
691587.428047,5366263.32986,493.360546774
691587.424470,5366263.42980,493.360405393
691587.420894,5366263.52974,493.360264012
691587.417318,5366263.62967,493.360122631
691587.413741,5366263.72961,493.359981250
691587.410165,5366263.82954,493.359839869
691587.406588,5366263.92948,493.359698488
691587.403012,5366264.02942,493.359557107
691587.399436,5366264.12935,493.359415726
691587.395859,5366264.22929,493.359274346
691587.391117,5366264.32918,493.359143898
691587.386361,5366264.42906,493.359013578
691587.381605,5366264.52895,493.358883257
691587.376849,5366264.62884,493.358752937
691587.372093,5366264.72872,493.358622617
691587.367338,5366264.82861,493.358492296
691587.362582,5366264.92850,493.358361976
691587.357826,5366265.02838,493.358231655
691587.353070,5366265.12827,493.358101335
691587.348314,5366265.22816,493.357971014
691587.344579,5366265.32809,493.357806985
691587.340913,5366265.42802,493.357640641
691587.337248,5366265.52795,493.357474298
691587.333583,5366265.62788,493.357307955
691587.329917,5366265.72782,493.357141611
691587.326252,5366265.82775,493.356975268
691587.322587,5366265.92768,493.356808925
691587.318921,5366266.02761,493.356642581
691587.315256,5366266.12755,493.356476238
691587.311591,5366266.22748,493.356309895
691587.307125,5366266.32738,493.356150100
691587.302421,5366266.42727,493.355992255
691587.297716,5366266.52716,493.355834409
691587.293012,5366266.62705,493.355676564
691587.288308,5366266.72694,493.355518718
691587.283604,5366266.82682,493.355360873
691587.278899,5366266.92671,493.355203028
691587.274195,5366267.02660,493.355045182
691587.269491,5366267.12649,493.354887337
691587.264787,5366267.22638,493.354729491
691587.260577,5366267.32629,493.354580067
691587.256444,5366267.42621,493.354431946
691587.252311,5366267.52612,493.354283826
691587.248178,5366267.62604,493.354135705
691587.244045,5366267.72595,493.353987584
691587.239912,5366267.82586,493.353839464
691587.235779,5366267.92578,493.353691343
691587.231645,5366268.02569,493.353543222
691587.227512,5366268.12561,493.353395102
691587.223362,5366268.22552,493.353247815
691587.218363,5366268.32540,493.353140607
691587.213364,5366268.42527,493.353033399
691587.208365,5366268.52515,493.352926191
691587.203366,5366268.62502,493.352818983
691587.198367,5366268.72490,493.352711775
691587.193369,5366268.82477,493.352604566
691587.188370,5366268.92465,493.352497358
691587.183371,5366269.02452,493.352390150
691587.178372,5366269.12440,493.352282942
691587.173373,5366269.22427,493.352175734
691587.165546,5366269.32396,493.352144265
691587.157517,5366269.42364,493.352118192
691587.149488,5366269.52332,493.352092119
691587.141459,5366269.62299,493.352066046
691587.133430,5366269.72267,493.352039973
691587.125401,5366269.82235,493.352013899
691587.117748,5366269.92205,493.351987764
691587.112105,5366270.02189,493.351961293
691587.106463,5366270.12173,493.351934822
691587.100820,5366270.22157,493.351908351
691587.095178,5366270.32141,493.351881881
691587.089536,5366270.42125,493.351855410
691587.083893,5366270.52109,493.351828939
691587.078251,5366270.62093,493.351802469
691587.072608,5366270.72078,493.351775998
691587.066966,5366270.82062,493.351749527
691587.061323,5366270.92046,493.351723057
691587.055681,5366271.02030,493.351696586
691587.050038,5366271.12014,493.351670115
691587.044396,5366271.21998,493.351643645
691587.038753,5366271.31982,493.351617174
691587.033111,5366271.41966,493.351590703
691587.027468,5366271.51950,493.351564232
691587.021826,5366271.61934,493.351537762
691587.016184,5366271.71918,493.351511291
691587.010541,5366271.81902,493.351484820
691587.004899,5366271.91886,493.351458350
691586.999256,5366272.01870,493.351431879
691586.993614,5366272.11854,493.351405408
691586.987971,5366272.21839,493.351378938
691586.982329,5366272.31823,493.351352467
691586.976686,5366272.41807,493.351325996
691586.971044,5366272.51791,493.351299525
691586.965401,5366272.61775,493.351273055
691586.959759,5366272.71759,493.351246584
691586.954117,5366272.81743,493.351220113
691586.948474,5366272.91727,493.351193643
691586.942832,5366273.01711,493.351167172
691586.937189,5366273.11695,493.351140701
691586.931547,5366273.21679,493.351114231
691586.925904,5366273.31663,493.351087760
691586.920262,5366273.41647,493.351061289
691586.914619,5366273.51631,493.351034819
691586.908977,5366273.61616,493.351008348
691586.903334,5366273.71600,493.350981877
691586.897692,5366273.81584,493.350955406
691586.893714,5366273.91573,493.350838085
691586.893215,5366274.01573,493.350530809
691586.892716,5366274.11572,493.350223534
691586.892217,5366274.21572,493.349916258
691586.891718,5366274.31572,493.349608983
691586.891219,5366274.41572,493.349301708
691586.890720,5366274.51572,493.348994432
691586.890222,5366274.61572,493.348687157
691586.889723,5366274.71571,493.348379881
691586.889224,5366274.81571,493.348072606
691586.888725,5366274.91571,493.347765330
691586.887011,5366275.01570,493.347572252
691586.885233,5366275.11568,493.347385170
691586.883456,5366275.21566,493.347198088
691586.881678,5366275.31565,493.347011006
691586.879900,5366275.41563,493.346823924
691586.878123,5366275.51562,493.346636843
691586.876345,5366275.61560,493.346449761
691586.874568,5366275.71558,493.346262679
691586.872790,5366275.81557,493.346075597
691586.870942,5366275.91555,493.345880884
691586.868354,5366276.01552,493.345605932
691586.865766,5366276.11548,493.345330979
691586.863177,5366276.21545,493.345056026
691586.860589,5366276.31541,493.344781074
691586.858001,5366276.41538,493.344506121
691586.855413,5366276.51535,493.344231168
691586.852825,5366276.61531,493.343956216
691586.850237,5366276.71528,493.343681263
691586.847648,5366276.81525,493.343406310
691586.845036,5366276.91521,493.343161756
691586.842367,5366277.01518,493.342990415
691586.839697,5366277.11514,493.342819075
691586.837027,5366277.21510,493.342647734
691586.834358,5366277.31507,493.342476393
691586.831688,5366277.41503,493.342305053
691586.829019,5366277.51500,493.342133712
691586.826349,5366277.61496,493.341962371
691586.823679,5366277.71492,493.341791030
691586.821010,5366277.81489,493.341619690
691586.816580,5366277.91477,493.341491823
691586.809557,5366278.01452,493.341428037
691586.802533,5366278.11427,493.341364251
691586.795510,5366278.21403,493.341300465
691586.788487,5366278.31378,493.341236680
691586.781463,5366278.41353,493.341172894
691586.774440,5366278.51329,493.341109108
691586.767416,5366278.61304,493.341045322
691586.760393,5366278.71279,493.340981536
691586.753370,5366278.81255,493.340917750
691586.747250,5366278.91235,493.340822268
691586.742509,5366279.01224,493.340678410
691586.737769,5366279.11213,493.340534551
691586.733028,5366279.21201,493.340390692
691586.728288,5366279.31190,493.340246834
691586.723547,5366279.41179,493.340102975
691586.718807,5366279.51168,493.339959116
691586.714066,5366279.61156,493.339815258
691586.709326,5366279.71145,493.339671399
691586.704585,5366279.81134,493.339527540
691586.699766,5366279.91122,493.339411942
691586.694784,5366280.01110,493.339354509
691586.689802,5366280.11097,493.339297075
691586.684820,5366280.21085,493.339239642
691586.679838,5366280.31073,493.339182208
691586.674856,5366280.41060,493.339124775
691586.669875,5366280.51048,493.339067341
691586.664893,5366280.61035,493.339009908
691586.659911,5366280.71023,493.338952474
691586.654929,5366280.81010,493.338895041
691586.650480,5366280.91000,493.338808673
691586.646529,5366281.00993,493.338695241
691586.642579,5366281.10985,493.338581810
691586.638628,5366281.20977,493.338468378
691586.634677,5366281.30969,493.338354947
691586.630726,5366281.40961,493.338241515
691586.626775,5366281.50954,493.338128084
691586.622824,5366281.60946,493.338014652
691586.618874,5366281.70938,493.337901221
691586.614923,5366281.80930,493.337787789
691586.610744,5366281.90921,493.337728319
691586.606301,5366282.00911,493.337731728
691586.601857,5366282.10902,493.337735138
691586.597413,5366282.20892,493.337738547
691586.592970,5366282.30882,493.337741957
691586.588526,5366282.40872,493.337745366
691586.584083,5366282.50862,493.337748776
691586.579639,5366282.60852,493.337752185
691586.575195,5366282.70842,493.337755595
691586.570752,5366282.80832,493.337759004
691586.566576,5366282.90824,493.337802052
691586.562834,5366283.00817,493.337909221
691586.559092,5366283.10810,493.338016390
691586.555350,5366283.20803,493.338123559
691586.551609,5366283.30796,493.338230728
691586.547867,5366283.40789,493.338337897
691586.544125,5366283.50782,493.338445066
691586.540383,5366283.60775,493.338552235
691586.536641,5366283.70768,493.338659404
691586.532899,5366283.80761,493.338766573
691586.528443,5366283.90750,493.338797016
691586.523146,5366284.00736,493.338737308
691586.517850,5366284.10722,493.338677600
691586.512554,5366284.20708,493.338617892
691586.507258,5366284.30694,493.338558184
691586.501961,5366284.40680,493.338498476
691586.496665,5366284.50666,493.338438768
691586.491369,5366284.60652,493.338379060
691586.486072,5366284.70638,493.338319352
691586.480776,5366284.80624,493.338259644
691586.476559,5366284.90615,493.338191044
691586.472922,5366285.00608,493.338117663
691586.469285,5366285.10602,493.338044283
691586.465648,5366285.20595,493.337970902
691586.462011,5366285.30588,493.337897522
691586.458375,5366285.40582,493.337824141
691586.454738,5366285.50575,493.337750760
691586.451101,5366285.60568,493.337677380
691586.447464,5366285.70562,493.337603999
691586.443827,5366285.80555,493.337530618
691586.440638,5366285.90550,493.337391915
691586.437771,5366286.00546,493.337206439
691586.434903,5366286.10542,493.337020963
691586.432035,5366286.20538,493.336835487
691586.429167,5366286.30534,493.336650011
691586.426300,5366286.40529,493.336464535
691586.423432,5366286.50525,493.336279059
691586.420564,5366286.60521,493.336093583
691586.417696,5366286.70517,493.335908108
691586.414829,5366286.80513,493.335722632
691586.411314,5366286.90507,493.335595303
691586.407383,5366287.00499,493.335505399
691586.403453,5366287.10491,493.335415496
691586.399522,5366287.20483,493.335325593
691586.395591,5366287.30476,493.335235690
691586.391661,5366287.40468,493.335145787
691586.387730,5366287.50460,493.335055884
691586.383799,5366287.60452,493.334965981
691586.379868,5366287.70445,493.334876077
691586.375938,5366287.80437,493.334786174
691586.371714,5366287.90428,493.334684840
691586.367239,5366288.00418,493.334573683
691586.362764,5366288.10408,493.334462527
691586.358289,5366288.20398,493.334351370
691586.353814,5366288.30388,493.334240213
691586.349339,5366288.40378,493.334129056
691586.344863,5366288.50368,493.334017899
691586.340388,5366288.60358,493.333906742
691586.335913,5366288.70348,493.333795586
691586.331438,5366288.80338,493.333684429
691586.326895,5366288.90327,493.333597871
691586.322268,5366289.00317,493.333541159
691586.317642,5366289.10306,493.333484447
691586.313015,5366289.20295,493.333427735
691586.308389,5366289.30285,493.333371024
691586.303763,5366289.40274,493.333314312
691586.299136,5366289.50263,493.333257600
691586.294510,5366289.60252,493.333200888
691586.289884,5366289.70242,493.333144176
691586.285257,5366289.80231,493.333087464
691586.280683,5366289.90221,493.333023584
691586.276422,5366290.00211,493.332916907
691586.272161,5366290.10202,493.332810230
691586.267900,5366290.20193,493.332703553
691586.263639,5366290.30184,493.332596876
691586.259378,5366290.40175,493.332490199
691586.255116,5366290.50166,493.332383522
691586.250855,5366290.60157,493.332276845
691586.246594,5366290.70148,493.332170168
691586.242333,5366290.80139,493.332063491
691586.237847,5366290.90129,493.331948057
691586.232820,5366291.00116,493.331811516
691586.227793,5366291.10103,493.331674976
691586.222766,5366291.20091,493.331538436
691586.217739,5366291.30078,493.331401895
691586.212711,5366291.40065,493.331265355
691586.207684,5366291.50053,493.331128815
691586.202657,5366291.60040,493.330992274
691586.197630,5366291.70027,493.330855734
691586.192603,5366291.80015,493.330719194
691586.187637,5366291.90002,493.330596507
691586.182902,5366291.99991,493.330525666
691586.178168,5366292.09980,493.330454824
691586.173433,5366292.19969,493.330383983
691586.168698,5366292.29958,493.330313141
691586.163963,5366292.39946,493.330242300
691586.159229,5366292.49935,493.330171458
691586.154494,5366292.59924,493.330100617
691586.149759,5366292.69913,493.330029775
691586.145024,5366292.79901,493.329958934
691586.140322,5366292.89890,493.329867068
691586.135809,5366292.99880,493.329651052
691586.131296,5366293.09870,493.329435036
691586.126784,5366293.19860,493.329219020
691586.122271,5366293.29850,493.329003003
691586.117758,5366293.39839,493.328786987
691586.113246,5366293.49829,493.328570971
691586.108733,5366293.59819,493.328354955
691586.104221,5366293.69809,493.328138938
691586.099708,5366293.79798,493.327922922
691586.095443,5366293.89789,493.327714119
691586.092028,5366293.99783,493.327530005
691586.088613,5366294.09778,493.327345891
691586.085197,5366294.19772,493.327161777
691586.081782,5366294.29766,493.326977663
691586.078367,5366294.39760,493.326793549
691586.074951,5366294.49754,493.326609435
691586.071536,5366294.59748,493.326425321
691586.068121,5366294.69742,493.326241207
691586.064706,5366294.79737,493.326057093
691586.061299,5366294.89731,493.325869215
691586.057911,5366294.99725,493.325672633
691586.054523,5366295.09719,493.325476051
691586.051135,5366295.19714,493.325279469
691586.047748,5366295.29708,493.325082887
691586.044360,5366295.39702,493.324886305
691586.040972,5366295.49696,493.324689723
691586.037584,5366295.59690,493.324493141
691586.034197,5366295.69685,493.324296559
691586.030809,5366295.79679,493.324099978
691586.026890,5366295.89671,493.323921824
691586.021001,5366295.99653,493.323812065
691586.015111,5366296.09636,493.323702305
691586.009222,5366296.19619,493.323592546
691586.003332,5366296.29601,493.323482786
691585.997443,5366296.39584,493.323373027
691585.991553,5366296.49567,493.323263267
691585.985664,5366296.59549,493.323153507
691585.979774,5366296.69532,493.323043748
691585.973885,5366296.79514,493.322933988
691585.968734,5366296.89501,493.322813740
691585.964863,5366296.99493,493.322675363
691585.960991,5366297.09486,493.322536986
691585.957119,5366297.19478,493.322398610
691585.953247,5366297.29471,493.322260233
691585.949375,5366297.39463,493.322121856
691585.945503,5366297.49456,493.321983479
691585.941631,5366297.59448,493.321845102
691585.937759,5366297.69441,493.321706726
691585.933887,5366297.79433,493.321568349
691585.929823,5366297.89425,493.321488673
691585.925572,5366297.99416,493.321466290
691585.921320,5366298.09407,493.321443907
691585.917068,5366298.19398,493.321421524
691585.912816,5366298.29389,493.321399140
691585.908565,5366298.39380,493.321376757
691585.904313,5366298.49371,493.321354374
691585.900061,5366298.59362,493.321331991
691585.895809,5366298.69353,493.321309608
691585.891557,5366298.79343,493.321287225
691585.887187,5366298.89334,493.321170416
691585.882631,5366298.99323,493.320904740
691585.878074,5366299.09313,493.320639065
691585.873517,5366299.19303,493.320373389
691585.868961,5366299.29292,493.320107713
691585.864404,5366299.39282,493.319842037
691585.859847,5366299.49271,493.319576361
691585.855290,5366299.59261,493.319310685
691585.850734,5366299.69251,493.319045009
691585.846177,5366299.79240,493.318779334
691585.842471,5366299.89233,493.318455107
691585.839156,5366299.99227,493.318104021
691585.835841,5366300.09222,493.317752935
691585.832525,5366300.19216,493.317401848
691585.829210,5366300.29211,493.317050762
691585.825895,5366300.39205,493.316699676
691585.822579,5366300.49200,493.316348589
691585.819264,5366300.59194,493.315997503
691585.815949,5366300.69189,493.315646417
691585.812633,5366300.79183,493.315295330
691585.809351,5366300.89178,493.315392820
691585.806069,5366300.99172,493.315504841
691585.802787,5366301.09167,493.315616862
691585.799505,5366301.19161,493.315728883
691585.796224,5366301.29156,493.315840903
691585.792942,5366301.39151,493.315952924
691585.789660,5366301.49145,493.316064945
691585.786379,5366301.59140,493.316176966
691585.783097,5366301.69134,493.316288987
691585.779815,5366301.79129,493.316401008
691585.774547,5366301.89115,493.316488874
691585.769069,5366301.99100,493.316574174
691585.763590,5366302.09085,493.316659473
691585.758112,5366302.19070,493.316744773
691585.752633,5366302.29055,493.316830073
691585.747155,5366302.39040,493.316915373
691585.741676,5366302.49025,493.317000673
691585.736197,5366302.59010,493.317085972
691585.730719,5366302.68995,493.317171272
691585.725240,5366302.78980,493.317256572
691585.720543,5366302.88969,493.317252876
691585.715878,5366302.98958,493.317245454
691585.711214,5366303.08947,493.317238032
691585.706549,5366303.18936,493.317230610
691585.701884,5366303.28925,493.317223188
691585.697220,5366303.38914,493.317215766
691585.692555,5366303.48903,493.317208345
691585.687891,5366303.58892,493.317200923
691585.683226,5366303.68882,493.317193501
691585.678561,5366303.78871,493.317186079
691585.674649,5366303.88863,493.317012436
691585.670840,5366303.98856,493.316816047
691585.667031,5366304.08848,493.316619657
691585.663222,5366304.18841,493.316423268
691585.659412,5366304.28834,493.316226879
691585.655603,5366304.38827,493.316030489
691585.651794,5366304.48819,493.315834100
691585.647985,5366304.58812,493.315637711
691585.644175,5366304.68805,493.315441321
691585.640366,5366304.78798,493.315244932
691585.636557,5366304.88790,493.315048543
691585.631752,5366304.98779,493.314933233
691585.626733,5366305.08766,493.314835389
691585.621713,5366305.18753,493.314737544
691585.616694,5366305.28741,493.314639700
691585.611674,5366305.38728,493.314541855
691585.606655,5366305.48716,493.314444011
691585.601635,5366305.58703,493.314346166
691585.596616,5366305.68690,493.314248322
691585.591596,5366305.78678,493.314150477
691585.586577,5366305.88665,493.314052633
691585.582035,5366305.98655,493.313851352
691585.577551,5366306.08645,493.313637390
691585.573068,5366306.18635,493.313423428
691585.568584,5366306.28624,493.313209465
691585.564101,5366306.38614,493.312995503
691585.559617,5366306.48604,493.312781541
691585.555134,5366306.58594,493.312567578
691585.550650,5366306.68584,493.312353616
691585.546167,5366306.78574,493.312139653
691585.541683,5366306.88564,493.311925691
691585.537584,5366306.98556,493.311783570
691585.533621,5366307.08548,493.311666855
691585.529658,5366307.18540,493.311550140
691585.525695,5366307.28532,493.311433425
691585.521732,5366307.38524,493.311316710
691585.517769,5366307.48516,493.311199995
691585.513806,5366307.58508,493.311083280
691585.509843,5366307.68501,493.310966566
691585.505880,5366307.78493,493.310849851
691585.501917,5366307.88485,493.310733136
691585.497232,5366307.98474,493.310599996
691585.492320,5366308.08462,493.310461681
691585.487409,5366308.18450,493.310323366
691585.482497,5366308.28437,493.310185051
691585.477585,5366308.38425,493.310046736
691585.472673,5366308.48413,493.309908422
691585.467761,5366308.58401,493.309770107
691585.462850,5366308.68389,493.309631792
691585.457938,5366308.78377,493.309493477
691585.453026,5366308.88365,493.309355162
691585.448413,5366308.98354,493.309264135
691585.443899,5366309.08344,493.309188969
691585.439386,5366309.18334,493.309113803
691585.434873,5366309.28324,493.309038637
691585.430360,5366309.38314,493.308963471
691585.425847,5366309.48303,493.308888305
691585.421333,5366309.58293,493.308813139
691585.416820,5366309.68283,493.308737973
691585.412307,5366309.78273,493.308662807
691585.407794,5366309.88263,493.308587640
691585.403466,5366309.98253,493.308515940
691585.399239,5366310.08244,493.308446134
691585.395012,5366310.18235,493.308376327
691585.390786,5366310.28226,493.308306521
691585.386559,5366310.38217,493.308236715
691585.382332,5366310.48209,493.308166909
691585.378105,5366310.58200,493.308097103
691585.373878,5366310.68191,493.308027297
691585.369652,5366310.78182,493.307957491
691585.365425,5366310.88173,493.307887685
691585.361244,5366310.98164,493.307703698
691585.357069,5366311.08155,493.307504274
691585.352894,5366311.18147,493.307304849
691585.348719,5366311.28138,493.307105424
691585.344544,5366311.38129,493.306906000
691585.340369,5366311.48120,493.306706575
691585.336194,5366311.58112,493.306507150
691585.332019,5366311.68103,493.306307725
691585.327844,5366311.78094,493.306108301
691585.323669,5366311.88085,493.305908876
691585.319253,5366311.98076,493.305728974
691585.314777,5366312.08066,493.305553944
691585.310301,5366312.18056,493.305378914
691585.305825,5366312.28045,493.305203884
691585.301349,5366312.38035,493.305028854
691585.296873,5366312.48025,493.304853825
691585.292397,5366312.58015,493.304678795
691585.287921,5366312.68005,493.304503765
691585.283445,5366312.77995,493.304328735
691585.278969,5366312.87985,493.304153705
691585.274349,5366312.97975,493.304023287
691585.269691,5366313.07964,493.303904484
691585.265034,5366313.17953,493.303785681
691585.260376,5366313.27942,493.303666877
691585.255718,5366313.37931,493.303548074
691585.251060,5366313.47920,493.303429271
691585.246403,5366313.57909,493.303310467
691585.241745,5366313.67899,493.303191664
691585.237087,5366313.77888,493.303072861
691585.232430,5366313.87877,493.302954057
691585.228124,5366313.97868,493.302794146
691585.223887,5366314.07859,493.302626273
691585.219649,5366314.17850,493.302458400
691585.215412,5366314.27841,493.302290527
691585.211175,5366314.37832,493.302122654
691585.206937,5366314.47823,493.301954782
691585.202700,5366314.57814,493.301786909
691585.198462,5366314.67805,493.301619036
691585.194225,5366314.77796,493.301451163
691585.189988,5366314.87787,493.301283290
691585.184417,5366314.97771,493.301283228
691585.178354,5366315.07752,493.301344988
691585.172292,5366315.17734,493.301406748
691585.166230,5366315.27716,493.301468508
691585.160167,5366315.37697,493.301530268
691585.154105,5366315.47679,493.301592028
691585.148043,5366315.57660,493.301653788
691585.141980,5366315.67642,493.301715547
691585.135918,5366315.77624,493.301777307
691585.131325,5366315.87613,493.301771023
691585.127041,5366315.97604,493.301750421
691585.122757,5366316.07594,493.301729819
691585.118473,5366316.17585,493.301709218
691585.114188,5366316.27576,493.301688616
691585.109904,5366316.37567,493.301668014
691585.105620,5366316.47558,493.301647412
691585.101336,5366316.57548,493.301626810
691585.097052,5366316.67539,493.301606208
691585.092768,5366316.77530,493.301585607
691585.088484,5366316.87521,493.301565005
691585.084200,5366316.97512,493.301544403
691585.079916,5366317.07503,493.301523801
691585.075632,5366317.17493,493.301503199
691585.071348,5366317.27484,493.301482597
691585.067064,5366317.37475,493.301461996
691585.062780,5366317.47466,493.301441394
691585.058495,5366317.57457,493.301420792
691585.054211,5366317.67447,493.301400190
691585.049927,5366317.77438,493.301379588
691585.045643,5366317.87429,493.301358986
691585.041359,5366317.97420,493.301338385
691585.037075,5366318.07411,493.301317783
691585.032791,5366318.17402,493.301297181
691585.028507,5366318.27392,493.301276579
691585.024223,5366318.37383,493.301255977
691585.019939,5366318.47374,493.301235376
691585.015655,5366318.57365,493.301214774
691585.011371,5366318.67356,493.301194172
691585.007087,5366318.77347,493.301173570
691585.002802,5366318.87337,493.301152968
691584.998518,5366318.97328,493.301132366
691584.994234,5366319.07319,493.301111765
691584.989950,5366319.17310,493.301091163
691584.985666,5366319.27301,493.301070561
691584.981382,5366319.37291,493.301049959
691584.977098,5366319.47282,493.301029357
691584.972814,5366319.57273,493.301008755
691584.968530,5366319.67264,493.300988154
691584.964246,5366319.77255,493.300967552
691584.959962,5366319.87246,493.300946950
691584.955678,5366319.97236,493.300926348
691584.951394,5366320.07227,493.300905746
691584.947110,5366320.17218,493.300885144
691584.943372,5366320.27211,493.300790825
691584.940166,5366320.37206,493.300624994
691584.936959,5366320.47201,493.300459164
691584.933753,5366320.57195,493.300293333
691584.930546,5366320.67190,493.300127502
691584.927339,5366320.77185,493.299961671
691584.924133,5366320.87180,493.299795840
691584.920926,5366320.97175,493.299630010
691584.917720,5366321.07170,493.299464179
691584.914513,5366321.17164,493.299298348
691584.910018,5366321.27154,493.299156009
691584.904462,5366321.37138,493.299033042
691584.898905,5366321.47123,493.298910075
691584.893349,5366321.57107,493.298787107
691584.887792,5366321.67092,493.298664140
691584.882235,5366321.77076,493.298541173
691584.876679,5366321.87061,493.298418205
691584.871122,5366321.97045,493.298295238
691584.865566,5366322.07030,493.298172271
691584.860009,5366322.17015,493.298049303
691584.855386,5366322.27004,493.297952440
691584.851006,5366322.36994,493.297862404
691584.846627,5366322.46984,493.297772367
691584.842247,5366322.56975,493.297682331
691584.837867,5366322.66965,493.297592295
691584.833488,5366322.76956,493.297502259
691584.829108,5366322.86946,493.297412222
691584.824729,5366322.96936,493.297322186
691584.820349,5366323.06927,493.297232150
691584.815970,5366323.16917,493.297142114
691584.811651,5366323.26908,493.297087867
691584.807363,5366323.36899,493.297051284
691584.803075,5366323.46890,493.297014702
691584.798786,5366323.56880,493.296978119
691584.794498,5366323.66871,493.296941537
691584.790210,5366323.76862,493.296904955
691584.785921,5366323.86853,493.296868372
691584.781633,5366323.96844,493.296831790
691584.777345,5366324.06834,493.296795207
691584.773057,5366324.16825,493.296758625
691584.767897,5366324.26812,493.296707628
691584.762469,5366324.36797,493.296652185
691584.757040,5366324.46782,493.296596741
691584.751612,5366324.56767,493.296541297
691584.746184,5366324.66753,493.296485854
691584.740756,5366324.76738,493.296430410
691584.735327,5366324.86723,493.296374966
691584.729899,5366324.96709,493.296319523
691584.724471,5366325.06694,493.296264079
691584.719043,5366325.16679,493.296208636
691584.714835,5366325.26670,493.296060505
691584.711020,5366325.36663,493.295882501
691584.707205,5366325.46655,493.295704498
691584.703391,5366325.56648,493.295526494
691584.699576,5366325.66641,493.295348491
691584.695762,5366325.76633,493.295170487
691584.691947,5366325.86626,493.294992484
691584.688132,5366325.96619,493.294814480
691584.684318,5366326.06612,493.294636477
691584.680503,5366326.16604,493.294458473
691584.676398,5366326.26596,493.294332099
691584.672203,5366326.36587,493.294221574
691584.668008,5366326.46578,493.294111048
691584.663813,5366326.56569,493.294000522
691584.659619,5366326.66561,493.293889996
691584.655424,5366326.76552,493.293779471
691584.651229,5366326.86543,493.293668945
691584.647034,5366326.96534,493.293558419
691584.642840,5366327.06525,493.293447893
691584.638645,5366327.16517,493.293337368
691584.634238,5366327.26507,493.293198198
691584.629806,5366327.36497,493.293055610
691584.625373,5366327.46487,493.292913022
691584.620941,5366327.56477,493.292770434
691584.616509,5366327.66467,493.292627846
691584.612077,5366327.76458,493.292485258
691584.607644,5366327.86448,493.292342669
691584.603212,5366327.96438,493.292200081
691584.598780,5366328.06428,493.292057493
691584.594347,5366328.16418,493.291914905
691584.589241,5366328.26405,493.291822723
691584.583956,5366328.36391,493.291743886
691584.578672,5366328.46377,493.291665048
691584.573387,5366328.56363,493.291586211
691584.568103,5366328.66349,493.291507373
691584.562818,5366328.76335,493.291428536
691584.557533,5366328.86321,493.291349699
691584.552249,5366328.96307,493.291270861
691584.546964,5366329.06293,493.291192024
691584.541679,5366329.16279,493.291113187
691584.537782,5366329.26271,493.290981994
691584.534513,5366329.36266,493.290827085
691584.531244,5366329.46261,493.290672175
691584.527975,5366329.56255,493.290517266
691584.524706,5366329.66250,493.290362356
691584.521437,5366329.76245,493.290207447
691584.518168,5366329.86239,493.290052537
691584.514898,5366329.96234,493.289897628
691584.511629,5366330.06228,493.289742718
691584.508360,5366330.16223,493.289587809
691584.504612,5366330.26216,493.289553062
691584.500710,5366330.36208,493.289557112
691584.496807,5366330.46201,493.289561163
691584.492905,5366330.56193,493.289565214
691584.489002,5366330.66186,493.289569264
691584.485099,5366330.76178,493.289573315
691584.481197,5366330.86170,493.289577365
691584.477294,5366330.96163,493.289581416
691584.473392,5366331.06155,493.289585466
691584.469489,5366331.16147,493.289589517
691584.464968,5366331.26137,493.289509118
691584.460124,5366331.36125,493.289384495
691584.455279,5366331.46114,493.289259872
691584.450434,5366331.56102,493.289135249
691584.445590,5366331.66090,493.289010626
691584.440745,5366331.76078,493.288886003
691584.435901,5366331.86067,493.288761381
691584.431056,5366331.96055,493.288636758
691584.426212,5366332.06043,493.288512135
691584.421367,5366332.16031,493.288387512
691584.416440,5366332.26019,493.288299471
691584.411443,5366332.36007,493.288243242
691584.406445,5366332.45994,493.288187014
691584.401447,5366332.55982,493.288130786
691584.396449,5366332.65969,493.288074557
691584.391451,5366332.75957,493.288018329
691584.386453,5366332.85944,493.287962101
691584.381456,5366332.95932,493.287905872
691584.376458,5366333.05919,493.287849644
691584.371460,5366333.15907,493.287793416
691584.366576,5366333.25895,493.287761588
691584.361791,5366333.35883,493.287750709
691584.357005,5366333.45872,493.287739830
691584.352220,5366333.55860,493.287728951
691584.347434,5366333.65849,493.287718072
691584.342648,5366333.75838,493.287707193
691584.337863,5366333.85826,493.287696314
691584.333077,5366333.95815,493.287685435
691584.328292,5366334.05803,493.287674556
691584.323506,5366334.15792,493.287663677
691584.319321,5366334.25783,493.287514968
691584.315534,5366334.35776,493.287274923
691584.311746,5366334.45768,493.287034877
691584.307959,5366334.55761,493.286794831
691584.304172,5366334.65754,493.286554785
691584.300384,5366334.75747,493.286314739
691584.296597,5366334.85740,493.286074693
691584.292810,5366334.95732,493.285834647
691584.289022,5366335.05725,493.285594601
691584.285235,5366335.15718,493.285354555
691584.281143,5366335.25710,493.285161372
691584.276972,5366335.35701,493.284980419
691584.272800,5366335.45692,493.284799466
691584.268629,5366335.55683,493.284618512
691584.264457,5366335.65675,493.284437559
691584.260286,5366335.75666,493.284256605
691584.256115,5366335.85657,493.284075652
691584.251943,5366335.95649,493.283894698
691584.247772,5366336.05640,493.283713745
691584.243600,5366336.15631,493.283532791
691584.239424,5366336.25622,493.283445019
691584.235247,5366336.35614,493.283377870
691584.231070,5366336.45605,493.283310721
691584.226893,5366336.55596,493.283243572
691584.222716,5366336.65587,493.283176423
691584.218539,5366336.75579,493.283109274
691584.214362,5366336.85570,493.283042125
691584.210185,5366336.95561,493.282974976
691584.206008,5366337.05553,493.282907827
691584.201831,5366337.15544,493.282840677
691584.197784,5366337.25536,493.282688092
691584.193797,5366337.35528,493.282495541
691584.189811,5366337.45520,493.282302990
691584.185824,5366337.55512,493.282110439
691584.181838,5366337.65504,493.281917888
691584.177851,5366337.75496,493.281725337
691584.173865,5366337.85488,493.281532786
691584.169878,5366337.95480,493.281340235
691584.165891,5366338.05472,493.281147684
691584.161905,5366338.15464,493.280955133
691584.157636,5366338.25455,493.280755541
691584.153205,5366338.35445,493.280551920
691584.148774,5366338.45435,493.280348299
691584.144343,5366338.55425,493.280144679
691584.139913,5366338.65415,493.279941058
691584.135482,5366338.75406,493.279737438
691584.131051,5366338.85396,493.279533817
691584.126620,5366338.95386,493.279330196
691584.122190,5366339.05376,493.279126576
691584.117759,5366339.15366,493.278922955
691584.113177,5366339.25356,493.278759988
691584.108472,5366339.35345,493.278630284
691584.103766,5366339.45333,493.278500580
691584.099061,5366339.55322,493.278370875
691584.094356,5366339.65311,493.278241171
691584.089650,5366339.75300,493.278111467
691584.084945,5366339.85289,493.277981762
691584.080239,5366339.95278,493.277852058
691584.075534,5366340.05267,493.277722354
691584.070829,5366340.15256,493.277592649
691584.066507,5366340.25246,493.277406642
691584.062543,5366340.35239,493.277168226
691584.058579,5366340.45231,493.276929810
691584.054615,5366340.55223,493.276691394
691584.050651,5366340.65215,493.276452979
691584.046687,5366340.75207,493.276214563
691584.042723,5366340.85199,493.275976147
691584.038758,5366340.95191,493.275737731
691584.034794,5366341.05183,493.275499316
691584.030830,5366341.15175,493.275260900
691584.026831,5366341.25167,493.275052724
691584.022770,5366341.35159,493.274898190
691584.018709,5366341.45151,493.274743656
691584.014649,5366341.55143,493.274589123
691584.010588,5366341.65134,493.274434589
691584.006527,5366341.75126,493.274280055
691584.002466,5366341.85118,493.274125522
691583.998405,5366341.95110,493.273970988
691583.994344,5366342.05101,493.273816454
691583.990283,5366342.15093,493.273661920
691583.985929,5366342.25084,493.273549650
691583.981307,5366342.35073,493.273475899
691583.976686,5366342.45062,493.273402147
691583.972064,5366342.55051,493.273328396
691583.967442,5366342.65041,493.273254644
691583.962821,5366342.75030,493.273180893
691583.958199,5366342.85019,493.273107142
691583.953577,5366342.95009,493.273033390
691583.948956,5366343.04998,493.272959639
691583.944334,5366343.14987,493.272885887
691583.940235,5366343.24979,493.272747846
691583.936537,5366343.34972,493.272560653
691583.932838,5366343.44965,493.272373461
691583.929139,5366343.54958,493.272186269
691583.925440,5366343.64951,493.271999076
691583.921742,5366343.74945,493.271811884
691583.918043,5366343.84938,493.271624692
691583.914344,5366343.94931,493.271437499
691583.910645,5366344.04924,493.271250307
691583.906947,5366344.14917,493.271063115
691583.902473,5366344.24907,493.270930474
691583.897489,5366344.34894,493.270833777
691583.892504,5366344.44882,493.270737080
691583.887520,5366344.54870,493.270640382
691583.882536,5366344.64857,493.270543685
691583.877551,5366344.74845,493.270446988
691583.872567,5366344.84832,493.270350291
691583.867583,5366344.94820,493.270253594
691583.862598,5366345.04807,493.270156897
691583.857614,5366345.14795,493.270060200
691583.852984,5366345.24784,493.270008217
691583.848568,5366345.34774,493.269983217
691583.844151,5366345.44765,493.269958216
691583.839735,5366345.54755,493.269933215
691583.835319,5366345.64745,493.269908215
691583.830903,5366345.74735,493.269883214
691583.826486,5366345.84726,493.269858213
691583.822070,5366345.94716,493.269833213
691583.817654,5366346.04706,493.269808212
691583.813238,5366346.14696,493.269783211
691583.808497,5366346.24685,493.269668853
691583.803667,5366346.34673,493.269529682
691583.798837,5366346.44662,493.269390511
691583.794007,5366346.54650,493.269251340
691583.789177,5366346.64638,493.269112169
691583.784347,5366346.74627,493.268972998
691583.779517,5366346.84615,493.268833827
691583.774687,5366346.94603,493.268694656
691583.769857,5366347.04592,493.268555485
691583.765027,5366347.14580,493.268416314
691583.761119,5366347.24572,493.268286836
691583.757493,5366347.34566,493.268160321
691583.753868,5366347.44559,493.268033807
691583.750242,5366347.54552,493.267907293
691583.746617,5366347.64546,493.267780778
691583.742991,5366347.74539,493.267654264
691583.739366,5366347.84533,493.267527750
691583.735740,5366347.94526,493.267401235
691583.732115,5366348.04520,493.267274721
691583.728489,5366348.14513,493.267148207
691583.723533,5366348.24500,493.267083692
691583.717908,5366348.34484,493.267050347
691583.712283,5366348.44469,493.267017001
691583.706658,5366348.54453,493.266983656
691583.701033,5366348.64437,493.266950311
691583.695408,5366348.74421,493.266916965
691583.689783,5366348.84405,493.266883620
691583.684159,5366348.94389,493.266850274
691583.678534,5366349.04374,493.266816929
691583.672909,5366349.14358,493.266783583
691583.668525,5366349.24347,493.266541249
691583.665193,5366349.34342,493.266121922
691583.661862,5366349.44336,493.265702596
691583.658530,5366349.54330,493.265283270
691583.655198,5366349.64325,493.264863943
691583.651866,5366349.74319,493.264444617
691583.648303,5366349.84313,493.264156523
691583.644331,5366349.94305,493.264101196
691583.640360,5366350.04297,493.264045869
691583.636388,5366350.14289,493.263990541
691583.632416,5366350.24281,493.263935214
691583.628444,5366350.34273,493.263879886
691583.624472,5366350.44265,493.263824559
691583.620501,5366350.54258,493.263769232
691583.616529,5366350.64250,493.263713904
691583.612557,5366350.74242,493.263658577
691583.608585,5366350.84234,493.263603249
691583.604613,5366350.94226,493.263547922
691583.600641,5366351.04218,493.263492595
691583.596670,5366351.14210,493.263437267
691583.592698,5366351.24202,493.263381940
691583.588726,5366351.34194,493.263326612
691583.584754,5366351.44186,493.263271285
691583.580782,5366351.54179,493.263215957
691583.576810,5366351.64171,493.263160630
691583.572839,5366351.74163,493.263105303
691583.568867,5366351.84155,493.263049975
691583.564895,5366351.94147,493.262994648
691583.560923,5366352.04139,493.262939320
691583.556951,5366352.14131,493.262883993
691583.552979,5366352.24123,493.262828666
691583.549008,5366352.34115,493.262773338
691583.545036,5366352.44108,493.262718011
691583.541064,5366352.54100,493.262662683
691583.537092,5366352.64092,493.262607356
691583.533120,5366352.74084,493.262552029
691583.529148,5366352.84076,493.262496701
691583.525177,5366352.94068,493.262441374
691583.521205,5366353.04060,493.262386046
691583.517233,5366353.14052,493.262330719
691583.513261,5366353.24044,493.262275392
691583.509289,5366353.34037,493.262220064
691583.505317,5366353.44029,493.262164737
691583.501346,5366353.54021,493.262109409
691583.497374,5366353.64013,493.262054082
691583.493402,5366353.74005,493.261998755
691583.489430,5366353.83997,493.261943427
691583.485458,5366353.93989,493.261888100
691583.481486,5366354.03981,493.261832772
691583.477515,5366354.13973,493.261777445
691583.473543,5366354.23965,493.261722118
691583.469571,5366354.33958,493.261666790
691583.465599,5366354.43950,493.261611463
691583.461627,5366354.53942,493.261556135
691583.457655,5366354.63934,493.261500808
691583.453684,5366354.73926,493.261445481
691583.449712,5366354.83918,493.261390153
691583.445740,5366354.93910,493.261334826
691583.441581,5366355.03901,493.261266567
691583.435947,5366355.13886,493.261096135
691583.430313,5366355.23870,493.260925704
691583.424678,5366355.33854,493.260755273
691583.419044,5366355.43838,493.260584841
691583.413410,5366355.53822,493.260414410
691583.407775,5366355.63806,493.260243979
691583.402141,5366355.73790,493.260073547
691583.396506,5366355.83774,493.259903116
691583.390872,5366355.93758,493.259732684
691583.385403,5366356.03743,493.259579132
691583.380700,5366356.13732,493.259503520
691583.375997,5366356.23721,493.259427907
691583.371294,5366356.33710,493.259352294
691583.366590,5366356.43699,493.259276681
691583.361887,5366356.53688,493.259201068
691583.357184,5366356.63677,493.259125456
691583.352480,5366356.73666,493.259049843
691583.347777,5366356.83655,493.258974230
691583.343074,5366356.93644,493.258898617
691583.338430,5366357.03633,493.258785498
691583.333898,5366357.13623,493.258602695
691583.329365,5366357.23612,493.258419893
691583.324833,5366357.33602,493.258237091
691583.320300,5366357.43592,493.258054289
691583.315768,5366357.53581,493.257871487
691583.311235,5366357.63571,493.257688685
691583.306703,5366357.73561,493.257505882
691583.302170,5366357.83551,493.257323080
691583.297638,5366357.93540,493.257140278
691583.293091,5366358.03530,493.257006393
691583.288534,5366358.13520,493.256913605
691583.283977,5366358.23509,493.256820818
691583.279419,5366358.33499,493.256728030
691583.274862,5366358.43488,493.256635242
691583.270304,5366358.53478,493.256542454
691583.265747,5366358.63468,493.256449666
691583.261189,5366358.73457,493.256356878
691583.256632,5366358.83447,493.256264090
691583.252074,5366358.93436,493.256171302
691583.247821,5366359.03427,493.256091889
691583.243870,5366359.13419,493.256025799
691583.239919,5366359.23412,493.255959709
691583.235969,5366359.33404,493.255893618
691583.232018,5366359.43396,493.255827528
691583.228067,5366359.53388,493.255761437
691583.224116,5366359.63380,493.255695347
691583.220166,5366359.73373,493.255629257
691583.216215,5366359.83365,493.255563166
691583.212264,5366359.93357,493.255497076
691583.207729,5366360.03347,493.255374252
691583.202848,5366360.13335,493.255217904
691583.197967,5366360.23323,493.255061555
691583.193086,5366360.33311,493.254905207
691583.188205,5366360.43299,493.254748858
691583.183325,5366360.53287,493.254592510
691583.178444,5366360.63275,493.254436161
691583.173563,5366360.73263,493.254279813
691583.168682,5366360.83251,493.254123464
691583.163801,5366360.93239,493.253967115
691583.159305,5366361.03229,493.253829578
691583.154976,5366361.13220,493.253700267
691583.150648,5366361.23210,493.253570956
691583.146320,5366361.33201,493.253441646
691583.141991,5366361.43192,493.253312335
691583.137663,5366361.53182,493.253183025
691583.133335,5366361.63173,493.253053714
691583.129006,5366361.73163,493.252924404
691583.124678,5366361.83154,493.252795093
691583.120350,5366361.93145,493.252665783
691583.116241,5366362.03136,493.252529474
691583.112239,5366362.13128,493.252389770
691583.108237,5366362.23120,493.252250065
691583.104235,5366362.33112,493.252110361
691583.100234,5366362.43104,493.251970656
691583.096232,5366362.53096,493.251830951
691583.092230,5366362.63088,493.251691247
691583.088228,5366362.73080,493.251551542
691583.084226,5366362.83072,493.251411838
691583.080224,5366362.93064,493.251272133
691583.075860,5366363.03054,493.251168014
691583.071251,5366363.13044,493.251087863
691583.066643,5366363.23033,493.251007711
691583.062034,5366363.33022,493.250927559
691583.057426,5366363.43012,493.250847407
691583.052817,5366363.53001,493.250767256
691583.048209,5366363.62991,493.250687104
691583.043600,5366363.72980,493.250606952
691583.038992,5366363.82969,493.250526800
691583.034383,5366363.92959,493.250446648
691583.029912,5366364.02949,493.250353128
691583.025490,5366364.12939,493.250254749
691583.021069,5366364.22929,493.250156371
691583.016647,5366364.32919,493.250057993
691583.012226,5366364.42910,493.249959615
691583.007804,5366364.52900,493.249861237
691583.003383,5366364.62890,493.249762858
691582.998961,5366364.72880,493.249664480
691582.994540,5366364.82870,493.249566102
691582.990118,5366364.92861,493.249467724
691582.985738,5366365.02851,493.249371837
691582.981366,5366365.12841,493.249276478
691582.976994,5366365.22832,493.249181119
691582.972622,5366365.32822,493.249085759
691582.968251,5366365.42813,493.248990400
691582.963879,5366365.52803,493.248895041
691582.959507,5366365.62794,493.248799682
691582.955136,5366365.72784,493.248704322
691582.950764,5366365.82775,493.248608963
691582.946392,5366365.92765,493.248513604
691582.942073,5366366.02756,493.248326160
691582.937755,5366366.12746,493.248136244
691582.933437,5366366.22737,493.247946328
691582.929119,5366366.32728,493.247756412
691582.924800,5366366.42718,493.247566497
691582.920482,5366366.52709,493.247376581
691582.916164,5366366.62700,493.247186665
691582.911846,5366366.72690,493.246996749
691582.907528,5366366.82681,493.246806833
691582.903210,5366366.92672,493.246616918
691582.897828,5366367.02657,493.246611218
691582.892388,5366367.12642,493.246615514
691582.886947,5366367.22627,493.246619810
691582.881507,5366367.32613,493.246624106
691582.876067,5366367.42598,493.246628402
691582.870627,5366367.52583,493.246632698
691582.865186,5366367.62568,493.246636994
691582.859746,5366367.72553,493.246641290
691582.854306,5366367.82539,493.246645586
691582.849021,5366367.92524,493.246632125
691582.844836,5366368.02516,493.246492933
691582.840650,5366368.12507,493.246353741
691582.836465,5366368.22498,493.246214548
691582.832279,5366368.32489,493.246075356
691582.828094,5366368.42481,493.245936164
691582.823909,5366368.52472,493.245796972
691582.819723,5366368.62463,493.245657780
691582.815538,5366368.72454,493.245518587
691582.811352,5366368.82445,493.245379395
691582.807164,5366368.92437,493.245227712
691582.802957,5366369.02428,493.245010544
691582.798750,5366369.12419,493.244793375
691582.794543,5366369.22410,493.244576206
691582.790336,5366369.32401,493.244359037
691582.786129,5366369.42392,493.244141869
691582.781922,5366369.52383,493.243924700
691582.777715,5366369.62375,493.243707531
691582.773508,5366369.72366,493.243490363
691582.769301,5366369.82357,493.243273194
691582.765057,5366369.92348,493.243059020
691582.760317,5366370.02337,493.242884070
691582.755577,5366370.12325,493.242709120
691582.750837,5366370.22314,493.242534171
691582.746098,5366370.32303,493.242359221
691582.741358,5366370.42292,493.242184271
691582.736618,5366370.52280,493.242009322
691582.731878,5366370.62269,493.241834372
691582.727139,5366370.72258,493.241659422
691582.722399,5366370.82246,493.241484473
691582.717710,5366370.92235,493.241321183
691582.713249,5366371.02226,493.241210100
691582.708788,5366371.12216,493.241099017
691582.704327,5366371.22206,493.240987935
691582.699866,5366371.32196,493.240876852
691582.695405,5366371.42186,493.240765769
691582.690944,5366371.52176,493.240654686
691582.686483,5366371.62166,493.240543603
691582.682021,5366371.72156,493.240432520
691582.677560,5366371.82146,493.240321438
691582.673171,5366371.92136,493.240229933
691582.669250,5366372.02128,493.240267349
691582.665330,5366372.12121,493.240304764
691582.661410,5366372.22113,493.240342180
691582.657490,5366372.32105,493.240379596
691582.653570,5366372.42098,493.240417012
691582.649649,5366372.52090,493.240454427
691582.645729,5366372.62082,493.240491843
691582.641809,5366372.72075,493.240529259
691582.637889,5366372.82067,493.240566675
691582.633991,5366372.92059,493.240595066
691582.630530,5366373.02053,493.240446711
691582.627069,5366373.12047,493.240298357
