700338.142453,4972922.50480,61.4575467721
700338.070159,4972922.57367,61.4520321232
700337.997865,4972922.64254,61.4465209302
700337.925572,4972922.71141,61.4410131912
700337.853278,4972922.78028,61.4355089039
700337.780983,4972922.84916,61.4300080663
700337.708689,4972922.91803,61.4245106762
700337.636395,4972922.98690,61.4190167314
700337.564100,4972923.05577,61.4135262298
700337.491806,4972923.12464,61.4080391693
700337.419511,4972923.19352,61.4025555477
700337.347216,4972923.26239,61.3970753629
700337.274921,4972923.33126,61.3915986127
700337.202626,4972923.40013,61.3861252951
700337.130330,4972923.46901,61.3806554078
700337.058035,4972923.53788,61.3751889488
700336.985739,4972923.60675,61.3697259158
700336.913443,4972923.67563,61.3642663068
700336.841147,4972923.74450,61.3588101196
700336.768851,4972923.81337,61.3533573520
700336.696555,4972923.88225,61.3479080007
700336.624259,4972923.95112,61.3424620646
700336.551962,4972924.01999,61.3370195418
700336.479666,4972924.08887,61.3315804301
700336.407369,4972924.15774,61.3261447274
700336.335072,4972924.22662,61.3207124314
700336.262775,4972924.29549,61.3152835402
700336.190478,4972924.36436,61.3098580509
700336.120892,4972924.43580,61.3044079014
700336.056473,4972924.51209,61.2989091734
700335.992476,4972924.58873,61.2934117276
700335.928903,4972924.66573,61.2879157060
700335.865756,4972924.74307,61.2824212507
700335.803037,4972924.82076,61.2769285038
700335.740748,4972924.89880,61.2714376070
700335.678890,4972924.97718,61.2659487023
700335.617467,4972925.05590,61.2604619312
700335.556479,4972925.13496,61.2549774353
700335.495928,4972925.21436,61.2494952912
700335.435817,4972925.29409,61.2440157633
700335.376147,4972925.37415,61.2385389337
700335.316920,4972925.45453,61.2330649436
700335.258137,4972925.53525,61.2275939340
700335.199801,4972925.61628,61.2221260458
700335.141914,4972925.69764,61.2166614199
700335.084477,4972925.77932,61.2112001968
700335.027491,4972925.86131,61.2057425170
700334.970959,4972925.94362,61.2002885210
700334.914882,4972926.02624,61.1948383489
700334.859262,4972926.10916,61.1893921408
700334.804101,4972926.19239,61.1839500368
700334.749400,4972926.27593,61.1785121765
700334.695162,4972926.35977,61.1730786997
700334.641387,4972926.44390,61.1676497458
700334.588077,4972926.52833,61.1622254542
700334.535234,4972926.61306,61.1568059642
700334.482860,4972926.69807,61.1513914147
700334.430956,4972926.78338,61.1459819446
700334.379523,4972926.86896,61.1405776927
700334.328564,4972926.95484,61.1351787976
700334.278080,4972927.04099,61.1297853952
700334.228072,4972927.12742,61.1243976246
700334.178542,4972927.21412,61.1190156256
700334.129491,4972927.30110,61.1136395363
700334.080922,4972927.38835,61.1082694945
700334.032834,4972927.47586,61.1029056393
700333.985231,4972927.56364,61.0975481051
700333.938113,4972927.65168,61.0921970307
700333.891481,4972927.73998,61.0868525531
700333.845338,4972927.82854,61.0815148093
700333.799685,4972927.91735,61.0761839359
700333.754522,4972928.00641,61.0708600694
700333.709852,4972928.09572,61.0655433462
700333.665676,4972928.18528,61.0602339023
700333.621994,4972928.27508,61.0549318737
700333.578810,4972928.36512,61.0496373960
700333.536123,4972928.45539,61.0443506047
700333.493934,4972928.54590,61.0390716352
700333.452247,4972928.63665,61.0338006225
700333.411061,4972928.72762,61.0285377014
700333.370378,4972928.81882,61.0232830099
700333.330199,4972928.91024,61.0180366759
700333.290525,4972929.00188,61.0127988369
700333.251358,4972929.09375,61.0075696266
700333.212699,4972929.18582,61.0023491788
700333.174548,4972929.27811,60.9971376271
700333.136908,4972929.37061,60.9919351045
700333.099779,4972929.46332,60.9867417441
700333.063163,4972929.55623,60.9815576785
700333.027060,4972929.64934,60.9763830403
700332.991472,4972929.74265,60.9712179616
700332.956399,4972929.83616,60.9660625743
700332.921844,4972929.92986,60.9609170101
700332.887806,4972930.02374,60.9557814003
700332.854287,4972930.11782,60.9506558766
700332.821288,4972930.21208,60.9455405693
700332.788810,4972930.30652,60.9404356089
700332.756854,4972930.40114,60.9353411255
700332.725421,4972930.49593,60.9302572490
700332.694511,4972930.59090,60.9251840374
700332.664127,4972930.68604,60.9201215506
700332.634268,4972930.78134,60.9150698737
700332.604936,4972930.87681,60.9100291090
700332.576132,4972930.97244,60.9049993585
700332.547856,4972931.06823,60.8999807239
700332.520109,4972931.16417,60.8949733062
700332.492893,4972931.26027,60.8899772062
700332.466208,4972931.35651,60.8849925240
700332.440054,4972931.45290,60.8800193025
700332.414433,4972931.54944,60.8750577497
700332.389346,4972931.64611,60.8701079121
700332.364793,4972931.74293,60.8651698884
700332.340775,4972931.83987,60.8602437767
700332.317293,4972931.93695,60.8553296749
700332.294348,4972932.03416,60.8504276801
700332.271939,4972932.13150,60.8455378894
700332.250069,4972932.22895,60.8406603991
700332.228737,4972932.32653,60.8357953052
700332.207944,4972932.42422,60.8309427035
700332.187691,4972932.52203,60.8261026891
700332.167979,4972932.61995,60.8212753566
700332.148807,4972932.71798,60.8164608006
700332.130178,4972932.81611,60.8116591148
700332.112090,4972932.91434,60.8068703928
700332.094546,4972933.01267,60.8020947278
700332.077545,4972933.11110,60.7973322122
700332.061088,4972933.20963,60.7925829385
700332.045175,4972933.30824,60.7878469984
700332.029807,4972933.40694,60.7831244834
700332.014984,4972933.50572,60.7784154845
700332.000708,4972933.60458,60.7737200923
700331.986977,4972933.70353,60.7690383941
700331.973794,4972933.80254,60.7643704819
700331.961157,4972933.90163,60.7597164459
700331.949068,4972934.00079,60.7550763752
700331.937527,4972934.10001,60.7504503583
700331.926534,4972934.1993,60.7458384834
700331.916090,4972934.29865,60.7412408383
700331.906195,4972934.39805,60.7366575103
700331.896849,4972934.49751,60.7320885863
700331.888052,4972934.59702,60.7275341530
700331.879806,4972934.69657,60.7229942962
700331.872109,4972934.79617,60.7184691019
700331.864963,4972934.89581,60.7139586551
700331.858367,4972934.99549,60.7094630409
700331.852323,4972935.09521,60.7049823435
700331.846829,4972935.19496,60.7005166471
700331.841886,4972935.29474,60.6960660352
700331.837495,4972935.39454,60.6916305910
700331.833655,4972935.49437,60.6872103972
700331.830367,4972935.59422,60.6828055388
700331.827631,4972935.69409,60.6784160926
700331.825446,4972935.79397,60.6740421425
700331.823813,4972935.89386,60.6696837697
700331.822733,4972935.99376,60.6653410546
700331.822204,4972936.09366,60.6610140775
700331.822227,4972936.19357,60.6567029182
700331.822803,4972936.29348,60.6524076559
700331.823930,4972936.39338,60.6481283694
700331.825609,4972936.49327,60.6438651373
700331.827841,4972936.59316,60.6396180375
700331.830624,4972936.69303,60.6353871475
700331.833959,4972936.79288,60.6311725443
700331.837846,4972936.89272,60.6269743047
700331.842285,4972936.99253,60.6227925047
700331.847275,4972937.09232,60.6186272209
700331.852816,4972937.19208,60.6144785274
700331.858909,4972937.29181,60.6103464993
700331.865553,4972937.39150,60.6062312110
700331.872747,4972937.49116,60.6021327103
700331.880492,4972937.59078,60.5980509810
700331.888787,4972937.69035,60.5939860565
700331.897633,4972937.78988,60.5899380125
700331.907028,4972937.88935,60.5859069244
700331.916973,4972937.98877,60.5818928668
700331.927468,4972938.08814,60.5778959138
700331.938511,4972938.18745,60.5739161386
700331.950103,4972938.28670,60.5699536141
700331.962244,4972938.38588,60.5660084124
700331.974933,4972938.48499,60.5620805571
700331.988169,4972938.58404,60.5581702103
700332.001952,4972938.68300,60.5542773984
700332.016283,4972938.78190,60.5504021912
700332.031160,4972938.88071,60.5465446579
700332.046582,4972938.97944,60.5427048670
700332.062551,4972939.07808,60.5388828865
700332.079064,4972939.17663,60.5350787836
700332.096122,4972939.27509,60.5312926250
700332.113723,4972939.37346,60.5275244771
700332.131869,4972939.47173,60.5237744051
700332.150557,4972939.56990,60.5200424743
700332.169788,4972939.66796,60.5163287488
700332.189560,4972939.76592,60.5126332924
700332.209874,4972939.86376,60.5089561684
700332.230728,4972939.96149,60.5052974394
700332.252122,4972940.05911,60.5016571673
700332.274056,4972940.15661,60.4980354137
700332.296528,4972940.25398,60.4944322394
700332.319538,4972940.35123,60.4908477046
700332.343086,4972940.44836,60.4872818692
700332.367170,4972940.54535,60.4837347922
700332.391790,4972940.64221,60.4802065322
700332.416945,4972940.73893,60.4766971445
700332.442635,4972940.83551,60.4732066894
700332.468858,4972940.93194,60.4697352239
700332.495614,4972941.02824,60.4662828042
700332.522901,4972941.12438,60.4628494854
700332.550721,4972941.22037,60.4594353241
700332.579070,4972941.31621,60.4560403743
700332.607949,4972941.41189,60.4526646899
700332.637356,4972941.50741,60.4493083245
700332.667291,4972941.60276,60.4459713310
700332.697753,4972941.69795,60.4426537618
700332.728741,4972941.79297,60.4393556685
700332.760254,4972941.88782,60.4360771025
700332.792291,4972941.98249,60.4328181143
700332.824851,4972942.07699,60.4295787542
700332.857933,4972942.17130,60.4263590715
700332.891536,4972942.26543,60.4231591152
700332.925659,4972942.35938,60.4199789337
700332.960301,4972942.45313,60.4168185748
700332.995461,4972942.54670,60.4136780876
700333.031138,4972942.64006,60.4105575151
700333.067330,4972942.73323,60.4074569051
700333.104038,4972942.82620,60.4043763031
700333.141259,4972942.91896,60.4013157542
700333.178992,4972943.01152,60.3982753025
700333.217237,4972943.10387,60.3952549920
700333.255992,4972943.19601,60.3922548658
700333.295256,4972943.28793,60.3892749664
700333.335028,4972943.37963,60.3863153359
700333.375307,4972943.47111,60.3833760158
700333.416090,4972943.56237,60.3804570468
700333.457378,4972943.65340,60.3775584692
700333.499169,4972943.74421,60.3746803227
700333.541461,4972943.83478,60.3718226465
700333.584254,4972943.92511,60.3689854790
700333.627546,4972944.01521,60.3661688578
700333.671335,4972944.10507,60.3633728202
700333.715621,4972944.19469,60.3605974029
700333.760402,4972944.28406,60.3578425890
700333.805676,4972944.37318,60.3551084027
700333.851442,4972944.46205,60.3523948990
700333.897700,4972944.55067,60.3497021417
700333.944447,4972944.63903,60.3470301936
700333.991682,4972944.72713,60.3443791170
700334.039403,4972944.81497,60.3417489732
700334.087610,4972944.90254,60.3391398232
700334.136300,4972944.98985,60.3365517270
700334.185474,4972945.07689,60.3339847140
700334.235127,4972945.16365,60.3314389000
700334.285260,4972945.25014,60.3289143155
700334.335870,4972945.33635,60.3264110178
700334.386957,4972945.42228,60.3239290634
700334.438518,4972945.50793,60.3214685084
700334.490552,4972945.59329,60.3190294079
700334.543058,4972945.67836,60.3166118166
700334.596033,4972945.76314,60.3142157882
700334.649477,4972945.84763,60.3118413758
700334.703387,4972945.93182,60.3094886321
700334.757762,4972946.01571,60.3071576087
700334.812601,4972946.09930,60.3048483568
700334.867901,4972946.18259,60.3025609268
700334.923661,4972946.26557,60.3002953684
700334.979879,4972946.34824,60.2980517308
700335.036554,4972946.43060,60.2958300621
700335.093683,4972946.51264,60.2936304103
700335.151266,4972946.59437,60.2914528222
700335.209300,4972946.67578,60.2892973443
700335.267783,4972946.75687,60.2871640222
700335.326714,4972946.83763,60.2850529008
700335.386091,4972946.91807,60.2829640242
700335.445913,4972946.99817,60.2808974358
700335.506176,4972947.07795,60.2788531785
700335.566880,4972947.15739,60.2768312955
700335.628023,4972947.23649,60.2748318282
700335.689602,4972947.31526,60.2728548177
700335.751616,4972947.39368,60.2709003042
700335.814063,4972947.47177,60.2689683274
700335.876941,4972947.54950,60.2670589262
700335.940249,4972947.62689,60.2651721388
700336.003983,4972947.70392,60.2633080029
700336.068143,4972947.78060,60.2614665552
700336.132726,4972947.85693,60.2596478320
700336.197730,4972947.93290,60.2578518688
700336.263154,4972948.00851,60.2560787005
700336.328995,4972948.08375,60.2543283613
700336.395252,4972948.15863,60.2526008845
700336.461921,4972948.23314,60.2508963030
700336.529002,4972948.30729,60.2492146489
700336.596493,4972948.38106,60.2475559535
700336.664390,4972948.45446,60.2459202486
700336.732693,4972948.52748,60.2443075623
700336.801398,4972948.60012,60.2427179247
700336.870505,4972948.67238,60.2411513645
700336.940010,4972948.74426,60.2396079096
700337.009912,4972948.81576,60.2380875873
700337.080209,4972948.88686,60.2365904239
700337.150898,4972948.95758,60.2351164454
700337.221977,4972949.02791,60.2336656767
700337.293444,4972949.09784,60.2322381422
700337.365297,4972949.16737,60.2308338656
700337.437534,4972949.23651,60.2294528697
700337.510152,4972949.30525,60.2280951768
700337.583150,4972949.37358,60.2267608082
700337.656524,4972949.44151,60.2254497848
700337.730274,4972949.50903,60.2241621268
700337.804395,4972949.57615,60.2228978530
700337.878887,4972949.64285,60.2216569821
700337.953747,4972949.70914,60.2204395318
700338.034200,4972949.76798,60.2196834649
700338.119001,4972949.82097,60.2192875607
700338.203802,4972949.87397,60.2188883070
700338.288603,4972949.92697,60.2184857038
700338.373404,4972949.97996,60.2180797515
700338.458205,4972950.03296,60.2176704501
700338.543006,4972950.08596,60.2172577999
700338.627807,4972950.13895,60.2168418011
700338.712608,4972950.19195,60.2164224538
700338.797409,4972950.24495,60.2159997584
700338.882210,4972950.29794,60.2155737148
700338.967011,4972950.35094,60.2151443235
700339.051812,4972950.40393,60.2147115845
700339.136613,4972950.45693,60.2142754980
700339.221414,4972950.50993,60.2138360642
700339.306214,4972950.56292,60.2133932834
700339.391015,4972950.61592,60.2129471557
700339.475816,4972950.66892,60.2124976814
700339.560617,4972950.72191,60.2120448605
700339.645418,4972950.77491,60.2115886934
700339.730219,4972950.82790,60.2111291801
700339.815020,4972950.88090,60.2106663210
700339.899820,4972950.93390,60.2102001162
700339.984621,4972950.98689,60.2097305658
700340.069422,4972951.03989,60.2092576702
700340.154223,4972951.09289,60.2087814294
700340.239024,4972951.14588,60.2083018436
700340.323824,4972951.19888,60.2078189131
700340.408625,4972951.25188,60.2073326381
